ply
format ascii 1.0
element vertex 55
property float x
property float y
property float z
property uchar red
property uchar green
property uchar blue
end_header
626353.649994 3993881.099976 113.860001 79 163 190
626342.600006 3993880.669983 117.660004 79 163 190
626336.269989 3993887.250000 117.849998 79 163 190
626327.470001 3993894.330017 118.970001 79 163 190
626319.640015 3993896.659973 121.580002 79 163 190
626319.790009 3993887.140015 126.150002 79 163 190
626311.769989 3993887.580017 129.990005 79 163 190
626303.470001 3993892.510010 133.229996 79 163 190
626295.329987 3993892.210022 138.589996 79 163 190
626287.160004 3993892.659973 142.809998 79 163 190
626278.709991 3993895.679993 146.979996 79 163 190
626268.609985 3993898.919983 151.070007 79 163 190
626262.209991 3993900.690002 155.199997 79 163 190
626254.529999 3993903.799988 158.139999 79 163 190
626256.200012 3993895.609985 161.830002 79 163 190
626246.210007 3993903.049988 163.520004 79 163 190
626237.059998 3993903.260010 167.679993 79 163 190
626243.830002 3993898.500000 168.789993 79 163 190
626243.830002 3993890.979980 170.759995 79 163 190
626238.229996 3993895.109985 171.699997 79 163 190
626227.600006 3993894.739990 175.970001 79 163 190
626221.000000 3993898.900024 175.869995 79 163 190
626211.369995 3993898.630005 179.210007 79 163 190
626217.720001 3993894.239990 180.000000 79 163 190
626209.149994 3993890.309998 184.240005 79 163 190
626214.160004 3993880.700012 186.070007 79 163 190
626171.779999 3993881.390015 200.179993 79 163 190
626171.779999 3994399.719971 321.899994 79 163 190
626171.839996 3994392.910034 323.769989 79 163 190
626172.020004 3994385.750000 324.489990 79 163 190
626178.669998 3994382.349976 326.299988 79 163 190
626184.800003 3994385.140015 328.630005 79 163 190
626192.000000 3994384.819946 331.200012 79 163 190
626199.020004 3994383.969971 332.519989 79 163 190
626204.919998 3994387.030029 334.760010 79 163 190
626210.979996 3994390.020020 336.959991 79 163 190
626216.460007 3994393.890015 339.239990 79 163 190
626221.440002 3994398.160034 341.910004 79 163 190
626228.710007 3994398.229980 343.019989 79 163 190
626235.570007 3994399.459961 344.709991 79 163 190
626241.830002 3994401.849976 347.260010 79 163 190
626248.250000 3994404.430054 348.829987 79 163 190
626255.820007 3994406.969971 351.130005 79 163 190
626262.260010 3994409.349976 352.869995 79 163 190
626267.109985 3994414.170044 355.779999 79 163 190
626277.609985 3994417.530029 357.250000 79 163 190
626285.070007 3994421.859985 359.660004 79 163 190
626294.859985 3994423.079956 361.160004 79 163 190
626301.869995 3994422.170044 361.089996 79 163 190
626308.809998 3994424.310059 361.140015 79 163 190
626315.359985 3994426.750000 360.339996 79 163 190
626315.239990 3994435.349976 360.619995 79 163 190
626310.869995 3994444.689941 362.049988 79 163 190
626310.839996 3994452.930054 362.170013 79 163 190
626310.369995 3994459.920044 362.890015 79 163 190
