ply
format ascii 1.0
element vertex 63
property float x
property float y
property float z
property uchar red
property uchar green
property uchar blue
end_header
626345.739990 3994310.310059 302.670013 111 111 255
626346.029999 3994300.699951 297.290009 111 111 255
626353.440002 3994289.910034 293.070007 111 111 255
626357.339996 3994281.469971 289.489990 111 111 255
626362.929993 3994273.729980 286.730011 111 111 255
626371.239990 3994263.010010 282.559998 111 111 255
626379.589996 3994257.670044 279.720001 111 111 255
626387.880005 3994249.709961 273.200012 111 111 255
626396.910004 3994248.709961 269.000000 111 111 255
626403.899994 3994244.180054 263.480011 111 111 255
626411.820007 3994250.369995 262.519989 111 111 255
626420.220001 3994248.290039 257.540009 111 111 255
626428.200012 3994253.819946 255.160004 111 111 255
626435.640015 3994260.189941 253.449997 111 111 255
626444.320007 3994259.099976 248.500000 111 111 255
626456.220001 3994258.060059 241.000000 111 111 255
626469.160004 3994263.300049 232.580002 111 111 255
626482.649994 3994255.680054 232.389999 111 111 255
626492.820007 3994260.250000 223.160004 111 111 255
626501.959991 3994264.339966 223.039993 111 111 255
626511.880005 3994258.650024 221.919998 111 111 255
626517.780029 3994258.290039 213.820007 111 111 255
626526.890015 3994256.119995 210.380005 111 111 255
626534.059998 3994252.369995 204.589996 111 111 255
626540.260010 3994244.739990 202.929993 111 111 255
626541.109985 3994234.829956 203.479996 111 111 255
626544.070007 3994228.500000 215.399994 111 111 255
626556.710022 3994224.750000 215.139999 111 111 255
626568.080017 3994228.640015 233.419998 111 111 255
626576.270020 3994222.949951 229.529999 111 111 255
626584.229980 3994221.119995 235.630005 111 111 255
626595.380005 3994221.229980 246.610001 111 111 255
626608.830017 3994221.380005 255.110001 111 111 255
626618.130005 3994217.880005 255.710007 111 111 255
626625.960022 3994211.650024 255.809998 111 111 255
626634.450012 3994202.319946 257.269989 111 111 255
626641.840027 3994194.449951 256.820007 111 111 255
626652.049988 3994187.400024 255.639999 111 111 255
626659.380005 3994180.500000 252.589996 111 111 255
626669.549988 3994181.770020 252.330002 111 111 255
626683.969971 3994180.599976 249.240005 111 111 255
626698.059998 3994181.290039 243.190002 111 111 255
626706.840027 3994186.650024 242.949997 111 111 255
626716.400024 3994190.369995 242.240005 111 111 255
626728.609985 3994191.089966 241.250000 111 111 255
626740.719971 3994198.099976 238.309998 111 111 255
626752.580017 3994199.439941 237.250000 111 111 255
626763.809998 3994201.910034 238.360001 111 111 255
626773.409973 3994199.060059 235.779999 111 111 255
626783.479980 3994202.170044 242.949997 111 111 255
626793.380005 3994200.410034 250.160004 111 111 255
626797.039978 3994208.729980 254.410004 111 111 255
626805.320007 3994208.540039 260.390015 111 111 255
626813.520020 3994208.699951 266.119995 111 111 255
626818.539978 3994212.630005 273.779999 111 111 255
626830.900024 3994210.430054 270.540009 111 111 255
626842.840027 3994215.900024 270.989990 111 111 255
626853.210022 3994215.660034 268.380005 111 111 255
626862.849976 3994218.140015 267.290009 111 111 255
626871.619995 3994223.829956 266.750000 111 111 255
626879.609985 3994229.099976 263.940002 111 111 255
626887.460022 3994233.310059 259.089996 111 111 255
626895.969971 3994232.099976 254.050003 111 111 255
