ply
format ascii 1.0
element vertex 186
property float x
property float y
property float z
property uchar red
property uchar green
property uchar blue
end_header
626345.739990 3994310.310059 302.670013 196 201 241
626354.010010 3994313.819946 307.579987 196 201 241
626361.690002 3994326.489990 313.459991 196 201 241
626376.940002 3994323.109985 311.260010 196 201 241
626376.019989 3994337.619995 307.290009 196 201 241
626389.260010 3994340.010010 298.649994 196 201 241
626400.869995 3994350.060059 289.390015 196 201 241
626414.640015 3994350.479980 282.130005 196 201 241
626424.459991 3994348.380005 279.510010 196 201 241
626426.609985 3994340.199951 274.119995 196 201 241
626434.839996 3994334.650024 269.149994 196 201 241
626444.309998 3994330.569946 263.390015 196 201 241
626454.450012 3994340.650024 272.339996 196 201 241
626457.600006 3994349.329956 280.160004 196 201 241
626466.549988 3994350.030029 286.170013 196 201 241
626473.119995 3994359.060059 281.040009 196 201 241
626478.890015 3994361.160034 289.000000 196 201 241
626481.399994 3994368.930054 265.709991 196 201 241
626491.320007 3994373.280029 256.420013 196 201 241
626497.059998 3994371.599976 270.230011 196 201 241
626506.320007 3994374.569946 263.489990 196 201 241
626507.399994 3994375.530029 273.500000 196 201 241
626515.330017 3994379.540039 263.589996 196 201 241
626526.479980 3994382.369995 271.290009 196 201 241
626535.690002 3994375.390015 267.140015 196 201 241
626539.289978 3994365.560059 262.920013 196 201 241
626538.789978 3994353.130005 252.529999 196 201 241
626542.520020 3994343.680054 239.360001 196 201 241
626544.650024 3994343.239990 256.149994 196 201 241
626553.539978 3994339.219971 246.539993 196 201 241
626555.440002 3994335.060059 231.649994 196 201 241
626565.900024 3994341.300049 240.509995 196 201 241
626570.340027 3994333.530029 252.220001 196 201 241
626574.479980 3994324.859985 236.229996 196 201 241
626582.520020 3994331.900024 246.380005 196 201 241
626584.780029 3994318.969971 238.929993 196 201 241
626578.669983 3994311.040039 253.470001 196 201 241
626582.070007 3994305.599976 230.199997 196 201 241
626576.729980 3994300.400024 223.190002 196 201 241
626574.940002 3994291.939941 218.139999 196 201 241
626573.599976 3994287.939941 234.039993 196 201 241
626566.349976 3994282.719971 229.270004 196 201 241
626564.619995 3994278.189941 215.940002 196 201 241
626561.179993 3994268.819946 215.490005 196 201 241
626558.820007 3994260.140015 223.089996 196 201 241
626559.260010 3994249.750000 218.729996 196 201 241
626554.369995 3994243.140015 225.199997 196 201 241
626548.919983 3994236.000000 209.610001 196 201 241
626544.070007 3994228.500000 215.399994 196 201 241
626534.359985 3994228.489990 198.679993 196 201 241
626526.059998 3994224.140015 215.839996 196 201 241
626517.599976 3994217.160034 195.410004 196 201 241
626512.820007 3994214.640015 211.550003 196 201 241
626502.820007 3994214.020020 207.800003 196 201 241
626496.429993 3994209.050049 213.860001 196 201 241
626491.489990 3994200.329956 215.889999 196 201 241
626494.660004 3994194.130005 205.529999 196 201 241
626493.890015 3994189.839966 215.940002 196 201 241
626496.049988 3994184.459961 207.770004 196 201 241
626496.059998 3994178.810059 199.360001 196 201 241
626498.440002 3994170.410034 204.440002 196 201 241
626501.679993 3994162.369995 198.940002 196 201 241
626507.989990 3994157.170044 215.490005 196 201 241
626514.650024 3994162.660034 181.639999 196 201 241
626523.219971 3994155.609985 182.300003 196 201 241
626519.820007 3994150.199951 199.229996 196 201 241
626520.580017 3994146.250000 217.570007 196 201 241
626524.099976 3994140.790039 196.660004 196 201 241
626522.479980 3994135.069946 177.419998 196 201 241
626531.140015 3994129.119995 182.550003 196 201 241
626530.950012 3994125.530029 199.100006 196 201 241
626526.900024 3994121.189941 190.809998 196 201 241
626529.119995 3994113.290039 179.419998 196 201 241
626537.409973 3994105.189941 178.440002 196 201 241
626544.440002 3994093.520020 173.729996 196 201 241
626547.729980 3994085.020020 169.690002 196 201 241
626554.380005 3994076.160034 172.320007 196 201 241
626554.659973 3994070.369995 194.009995 196 201 241
626562.799988 3994066.189941 198.050003 196 201 241
626565.500000 3994066.540039 157.740005 196 201 241
626568.719971 3994057.199951 180.309998 196 201 241
626571.049988 3994055.910034 165.410004 196 201 241
626570.760010 3994049.060059 154.779999 196 201 241
626571.369995 3994048.969971 189.570007 196 201 241
626570.700012 3994039.640015 149.419998 196 201 241
626571.359985 3994037.569946 170.869995 196 201 241
626570.849976 3994033.329956 141.169998 196 201 241
626577.679993 3994031.349976 165.949997 196 201 241
626587.679993 3994030.489990 144.179993 196 201 241
626596.500000 3994024.979980 146.649994 196 201 241
626595.799988 3994020.049988 137.869995 196 201 241
626601.169983 3994011.609985 139.649994 196 201 241
626596.229980 3994003.859985 126.449997 196 201 241
626608.159973 3993999.450012 128.289993 196 201 241
626620.690002 3993997.429993 120.980003 196 201 241
626620.280029 3993988.760010 115.849998 196 201 241
626630.250000 3993984.000000 113.989998 196 201 241
626639.760010 3993980.559998 116.339996 196 201 241
626644.590027 3993978.349976 107.820000 196 201 241
626651.049988 3993979.799988 115.989998 196 201 241
626659.539978 3993991.299988 132.089996 196 201 241
626658.739990 3993991.710022 148.699997 196 201 241
626661.349976 3993999.989990 154.179993 196 201 241
626669.929993 3993997.679993 148.660004 196 201 241
626682.549988 3993999.119995 139.619995 196 201 241
626685.940002 3993995.929993 150.610001 196 201 241
626688.849976 3993995.599976 160.199997 196 201 241
626694.820007 3993997.049988 145.350006 196 201 241
626699.419983 3993994.270020 123.010002 196 201 241
626702.510010 3993999.369995 139.470001 196 201 241
626706.539978 3993999.640015 110.059998 196 201 241
626714.299988 3993998.679993 147.679993 196 201 241
626718.989990 3994001.179993 156.550003 196 201 241
626723.520020 3994002.869995 145.169998 196 201 241
626726.559998 3994003.169983 101.099998 196 201 241
626729.270020 3994007.270020 114.949997 196 201 241
626734.210022 3994010.330017 123.000000 196 201 241
626739.809998 3994009.450012 114.849998 196 201 241
626743.419983 3994016.700012 121.089996 196 201 241
626750.890015 3994014.659973 139.029999 196 201 241
626750.919983 3994022.239990 116.900002 196 201 241
626760.440002 3994025.670044 146.210007 196 201 241
626766.700012 3994016.140015 128.639999 196 201 241
626767.659973 3994016.070007 118.730003 196 201 241
626775.840027 3994012.979980 113.760002 196 201 241
626771.450012 3994018.989990 105.959999 196 201 241
626775.119995 3994022.640015 125.309998 196 201 241
626782.679993 3994028.170044 115.040001 196 201 241
626781.789978 3994036.459961 147.350006 196 201 241
626778.630005 3994046.510010 148.100006 196 201 241
626784.039978 3994053.050049 153.720001 196 201 241
626782.979980 3994060.219971 168.029999 196 201 241
626791.239990 3994053.290039 145.910004 196 201 241
626796.109985 3994046.420044 139.610001 196 201 241
626807.729980 3994042.500000 139.270004 196 201 241
626812.919983 3994034.969971 147.399994 196 201 241
626815.150024 3994030.750000 138.389999 196 201 241
626823.989990 3994029.300049 126.220001 196 201 241
626823.750000 3994023.820007 146.940002 196 201 241
626832.059998 3994025.329956 121.449997 196 201 241
626833.650024 3994016.739990 128.130005 196 201 241
626840.710022 3994015.590027 109.010002 196 201 241
626845.969971 3994020.820007 126.940002 196 201 241
626847.190002 3994025.810059 139.110001 196 201 241
626847.659973 3994034.010010 145.050003 196 201 241
626851.030029 3994037.550049 135.110001 196 201 241
626854.969971 3994037.510010 150.880005 196 201 241
626858.049988 3994042.209961 159.080002 196 201 241
626865.869995 3994044.880005 141.869995 196 201 241
626872.559998 3994050.140015 152.410004 196 201 241
626874.770020 3994060.380005 191.889999 196 201 241
626875.539978 3994065.310059 208.179993 196 201 241
626882.039978 3994064.900024 180.929993 196 201 241
626887.739990 3994070.790039 161.330002 196 201 241
626887.669983 3994071.420044 204.259995 196 201 241
626884.570007 3994077.229980 187.770004 196 201 241
626887.039978 3994079.619995 166.380005 196 201 241
626896.159973 3994075.349976 186.300003 196 201 241
626906.330017 3994075.449951 165.440002 196 201 241
626914.080017 3994066.699951 159.429993 196 201 241
626917.049988 3994067.410034 170.800003 196 201 241
626922.950012 3994063.969971 163.220001 196 201 241
626930.190002 3994055.979980 158.630005 196 201 241
626939.119995 3994054.119995 154.610001 196 201 241
626947.989990 3994050.670044 163.229996 196 201 241
626950.179993 3994051.209961 150.649994 196 201 241
626957.989990 3994055.660034 155.110001 196 201 241
626963.820007 3994063.650024 154.240005 196 201 241
626970.119995 3994071.119995 169.139999 196 201 241
626972.159973 3994069.369995 153.350006 196 201 241
626978.280029 3994069.160034 180.210007 196 201 241
626978.359985 3994138.380005 203.740005 196 201 241
626978.359985 3994181.400024 212.669998 196 201 241
626978.289978 3994259.310059 237.289993 196 201 241
626976.460022 3994253.869995 215.399994 196 201 241
626972.890015 3994245.109985 211.710007 196 201 241
626972.549988 3994244.550049 231.110001 196 201 241
626966.070007 3994236.160034 246.160004 196 201 241
626958.700012 3994239.489990 217.050003 196 201 241
626950.729980 3994243.969971 220.970001 196 201 241
626950.200012 3994233.910034 221.199997 196 201 241
626937.250000 3994229.760010 229.210007 196 201 241
626924.250000 3994226.390015 237.740005 196 201 241
626912.349976 3994226.189941 245.320007 196 201 241
626906.609985 3994227.239990 253.600006 196 201 241
626895.969971 3994232.099976 254.050003 196 201 241
