ply
format ascii 1.0
element vertex 93
property float x
property float y
property float z
property uchar red
property uchar green
property uchar blue
end_header
626353.649994 3993881.099976 113.860001 39 224 40
626344.640015 3993888.030029 113.459999 39 224 40
626344.200012 3993894.799988 111.660004 39 224 40
626341.220001 3993901.500000 109.440002 39 224 40
626333.839996 3993904.390015 109.769997 39 224 40
626327.839996 3993908.039978 109.389999 39 224 40
626323.540009 3993913.460022 107.080002 39 224 40
626318.829987 3993921.539978 105.050003 39 224 40
626313.079987 3993929.559998 105.730003 39 224 40
626308.769989 3993935.219971 105.919998 39 224 40
626303.190002 3993937.650024 109.489998 39 224 40
626302.070007 3993944.619995 109.900002 39 224 40
626297.209991 3993952.890015 110.150002 39 224 40
626294.980011 3993959.640015 109.910004 39 224 40
626293.010010 3993966.539978 109.830002 39 224 40
626294.140015 3993972.280029 105.620003 39 224 40
626290.640015 3993982.479980 101.830002 39 224 40
626289.380005 3993989.840027 100.669998 39 224 40
626289.440002 3993998.330017 107.739998 39 224 40
626284.220001 3994006.900024 108.949997 39 224 40
626284.359985 3994014.469971 114.400002 39 224 40
626281.359985 3994020.109985 118.419998 39 224 40
626284.690002 3994025.020020 122.459999 39 224 40
626284.160004 3994031.050049 126.260002 39 224 40
626284.540009 3994036.390015 130.860001 39 224 40
626282.720001 3994042.760010 133.380005 39 224 40
626282.200012 3994049.790039 137.759995 39 224 40
626282.709991 3994055.589966 141.710007 39 224 40
626283.980011 3994063.579956 147.850006 39 224 40
626287.100006 3994068.119995 152.389999 39 224 40
626285.929993 3994076.140015 157.020004 39 224 40
626282.799988 3994082.859985 157.600006 39 224 40
626279.540009 3994091.849976 163.610001 39 224 40
626275.329987 3994101.910034 169.690002 39 224 40
626273.589996 3994108.140015 172.630005 39 224 40
626275.140015 3994116.310059 178.619995 39 224 40
626270.670013 3994124.079956 183.539993 39 224 40
626272.799988 3994129.180054 187.869995 39 224 40
626273.359985 3994134.339966 192.630005 39 224 40
626273.480011 3994140.189941 196.600006 39 224 40
626271.489990 3994146.170044 199.839996 39 224 40
626273.320007 3994151.829956 203.600006 39 224 40
626272.140015 3994157.609985 207.479996 39 224 40
626270.329987 3994164.380005 211.309998 39 224 40
626264.440002 3994168.310059 211.589996 39 224 40
626266.260010 3994174.170044 215.309998 39 224 40
626263.899994 3994180.400024 217.789993 39 224 40
626259.429993 3994186.060059 217.389999 39 224 40
626257.079987 3994192.719971 216.529999 39 224 40
626251.179993 3994199.449951 217.029999 39 224 40
626253.059998 3994205.239990 224.660004 39 224 40
626255.169998 3994210.329956 229.610001 39 224 40
626257.049988 3994218.219971 234.029999 39 224 40
626255.020004 3994224.219971 238.059998 39 224 40
626264.049988 3994229.329956 238.130005 39 224 40
626264.540009 3994239.800049 244.559998 39 224 40
626271.619995 3994242.959961 244.009995 39 224 40
626268.570007 3994247.619995 248.339996 39 224 40
626267.869995 3994256.959961 254.419998 39 224 40
626274.619995 3994260.229980 254.100006 39 224 40
626272.230011 3994266.520020 258.859985 39 224 40
626269.730011 3994271.880005 262.820007 39 224 40
626269.799988 3994277.989990 266.440002 39 224 40
626276.619995 3994280.069946 265.959991 39 224 40
626275.829987 3994286.449951 269.890015 39 224 40
626275.220001 3994292.500000 273.700012 39 224 40
626281.130005 3994296.420044 273.649994 39 224 40
626280.070007 3994304.760010 279.529999 39 224 40
626284.970001 3994310.310059 285.140015 39 224 40
626288.190002 3994317.910034 295.040009 39 224 40
626290.640015 3994323.000000 299.579987 39 224 40
626291.279999 3994331.829956 305.739990 39 224 40
626291.459991 3994337.520020 310.429993 39 224 40
626295.190002 3994343.229980 314.720001 39 224 40
626293.700012 3994348.439941 319.320007 39 224 40
626294.970001 3994353.979980 323.630005 39 224 40
626299.829987 3994357.699951 327.609985 39 224 40
626303.359985 3994362.869995 331.269989 39 224 40
626303.350006 3994369.530029 335.260010 39 224 40
626307.850006 3994374.479980 339.049988 39 224 40
626310.850006 3994379.420044 343.079987 39 224 40
626313.630005 3994386.560059 348.420013 39 224 40
626317.890015 3994391.810059 350.630005 39 224 40
626316.510010 3994398.430054 353.470001 39 224 40
626317.299988 3994406.369995 356.049988 39 224 40
626325.989990 3994408.199951 355.920013 39 224 40
626329.640015 3994418.459961 357.019989 39 224 40
626327.589996 3994428.449951 357.019989 39 224 40
626323.420013 3994435.319946 357.079987 39 224 40
626318.959991 3994440.890015 356.959991 39 224 40
626310.869995 3994444.689941 362.049988 39 224 40
626310.839996 3994452.930054 362.170013 39 224 40
626310.369995 3994459.920044 362.890015 39 224 40
