ply
format ascii 1.0
element vertex 67
property float x
property float y
property float z
property uchar red
property uchar green
property uchar blue
end_header
626345.739990 3994310.310059 302.670013 84 140 149
626354.010010 3994313.819946 307.579987 84 140 149
626361.690002 3994326.489990 313.459991 84 140 149
626366.940002 3994335.060059 312.380005 84 140 149
626376.019989 3994337.619995 307.290009 84 140 149
626389.260010 3994340.010010 298.649994 84 140 149
626400.869995 3994350.060059 289.390015 84 140 149
626414.640015 3994350.479980 282.130005 84 140 149
626424.459991 3994348.380005 279.510010 84 140 149
626426.609985 3994340.199951 274.119995 84 140 149
626434.839996 3994334.650024 269.149994 84 140 149
626443.329987 3994340.030029 271.600006 84 140 149
626454.450012 3994340.650024 272.339996 84 140 149
626457.600006 3994349.329956 280.160004 84 140 149
626466.549988 3994350.030029 286.170013 84 140 149
626474.940002 3994349.540039 277.950012 84 140 149
626484.279999 3994348.170044 272.470001 84 140 149
626493.859985 3994349.369995 265.070007 84 140 149
626500.600006 3994342.300049 263.279999 84 140 149
626507.339996 3994335.069946 262.329987 84 140 149
626516.059998 3994340.500000 261.059998 84 140 149
626515.049988 3994330.969971 257.140015 84 140 149
626522.260010 3994328.540039 263.709991 84 140 149
626516.580017 3994321.160034 257.170013 84 140 149
626524.900024 3994318.219971 262.940002 84 140 149
626530.799988 3994310.229980 250.009995 84 140 149
626541.950012 3994306.859985 242.100006 84 140 149
626550.369995 3994298.810059 233.279999 84 140 149
626559.309998 3994302.390015 230.360001 84 140 149
626566.799988 3994300.739990 223.899994 84 140 149
626576.729980 3994300.400024 223.190002 84 140 149
626591.179993 3994294.560059 223.240005 84 140 149
626599.159973 3994290.859985 248.330002 84 140 149
626608.460022 3994285.780029 239.820007 84 140 149
626616.190002 3994278.640015 247.130005 84 140 149
626619.330017 3994273.250000 268.510010 84 140 149
626628.700012 3994270.900024 259.820007 84 140 149
626636.880005 3994277.020020 273.920013 84 140 149
626643.599976 3994282.739990 280.309998 84 140 149
626653.820007 3994286.939941 279.640015 84 140 149
626662.799988 3994285.040039 275.619995 84 140 149
626668.059998 3994287.199951 293.920013 84 140 149
626674.130005 3994279.829956 289.559998 84 140 149
626680.820007 3994272.050049 286.079987 84 140 149
626686.590027 3994263.400024 286.820007 84 140 149
626698.630005 3994257.900024 286.890015 84 140 149
626707.119995 3994250.900024 283.190002 84 140 149
626715.309998 3994256.589966 282.320007 84 140 149
626723.780029 3994259.069946 277.779999 84 140 149
626731.669983 3994253.270020 274.690002 84 140 149
626739.729980 3994247.430054 268.670013 84 140 149
626750.010010 3994242.050049 267.980011 84 140 149
626758.599976 3994245.979980 271.570007 84 140 149
626771.039978 3994245.170044 269.589996 84 140 149
626779.500000 3994249.319946 272.890015 84 140 149
626789.090027 3994250.520020 276.410004 84 140 149
626796.919983 3994256.280029 279.640015 84 140 149
626807.119995 3994249.790039 285.369995 84 140 149
626813.479980 3994254.880005 291.459991 84 140 149
626825.880005 3994250.239990 290.799988 84 140 149
626841.859985 3994258.359985 287.470001 84 140 149
626854.510010 3994258.619995 278.920013 84 140 149
626870.010010 3994254.660034 269.079987 84 140 149
626879.190002 3994253.839966 262.450012 84 140 149
626886.359985 3994247.869995 258.010010 84 140 149
626893.760010 3994241.869995 254.050003 84 140 149
626895.969971 3994232.099976 254.050003 84 140 149
