ply
format ascii 1.0
element vertex 59
property float x
property float y
property float z
property uchar red
property uchar green
property uchar blue
end_header
626345.739990 3994310.310059 302.670013 111 255 111
626353.989990 3994304.569946 302.070007 111 255 111
626364.320007 3994302.250000 303.589996 111 255 111
626376.589996 3994298.189941 304.760010 111 255 111
626386.799988 3994299.239990 305.019989 111 255 111
626403.359985 3994295.560059 294.079987 111 255 111
626411.029999 3994297.380005 287.899994 111 255 111
626419.630005 3994296.069946 280.179993 111 255 111
626433.850006 3994296.010010 269.950012 111 255 111
626444.040009 3994295.609985 261.179993 111 255 111
626451.929993 3994292.010010 252.820007 111 255 111
626460.489990 3994293.739990 245.500000 111 255 111
626468.410004 3994292.000000 237.860001 111 255 111
626477.670013 3994288.239990 237.570007 111 255 111
626489.299988 3994284.359985 239.119995 111 255 111
626497.480011 3994290.250000 240.149994 111 255 111
626507.600006 3994289.160034 236.710007 111 255 111
626517.630005 3994291.239990 237.080002 111 255 111
626527.989990 3994292.469971 236.960007 111 255 111
626541.080017 3994296.849976 239.940002 111 255 111
626550.369995 3994298.810059 233.279999 111 255 111
626559.309998 3994302.390015 230.360001 111 255 111
626566.799988 3994300.739990 223.899994 111 255 111
626576.729980 3994300.400024 223.190002 111 255 111
626582.890015 3994288.540039 223.729996 111 255 111
626591.669983 3994286.810059 229.500000 111 255 111
626599.409973 3994286.650024 235.759995 111 255 111
626608.460022 3994285.780029 239.820007 111 255 111
626616.190002 3994278.640015 247.130005 111 255 111
626623.919983 3994276.479980 253.139999 111 255 111
626628.700012 3994270.900024 259.820007 111 255 111
626632.859985 3994264.680054 266.410004 111 255 111
626641.390015 3994259.680054 267.970001 111 255 111
626650.770020 3994259.650024 272.369995 111 255 111
626660.760010 3994253.109985 276.250000 111 255 111
626671.580017 3994247.000000 278.279999 111 255 111
626681.799988 3994248.180054 279.760010 111 255 111
626690.090027 3994243.260010 276.540009 111 255 111
626699.049988 3994246.079956 279.750000 111 255 111
626711.950012 3994243.609985 277.079987 111 255 111
626723.039978 3994247.640015 273.920013 111 255 111
626729.919983 3994245.930054 266.829987 111 255 111
626739.729980 3994247.430054 268.670013 111 255 111
626748.250000 3994250.300049 273.649994 111 255 111
626758.599976 3994245.979980 271.570007 111 255 111
626771.039978 3994245.170044 269.589996 111 255 111
626779.500000 3994249.319946 272.890015 111 255 111
626789.090027 3994250.520020 276.410004 111 255 111
626797.369995 3994245.530029 273.339996 111 255 111
626805.250000 3994242.560059 278.649994 111 255 111
626813.650024 3994237.239990 282.429993 111 255 111
626820.090027 3994229.520020 282.920013 111 255 111
626830.770020 3994224.619995 279.809998 111 255 111
626842.989990 3994223.729980 277.190002 111 255 111
626855.309998 3994224.400024 273.019989 111 255 111
626866.780029 3994231.500000 270.929993 111 255 111
626879.609985 3994229.099976 263.940002 111 255 111
626887.460022 3994233.310059 259.089996 111 255 111
626895.969971 3994232.099976 254.050003 111 255 111
