ply
format ascii 1.0
element vertex 123
property float x
property float y
property float z
property uchar red
property uchar green
property uchar blue
end_header
626353.649994 3993881.099976 113.860001 196 224 111
626383.609985 3993880.859985 100.870003 196 224 111
626388.239990 3993884.210022 96.779999 196 224 111
626391.959991 3993890.190002 92.629997 196 224 111
626401.559998 3993886.840027 88.660004 196 224 111
626409.029999 3993893.950012 81.379997 196 224 111
626407.459991 3993900.679993 80.110001 196 224 111
626408.179993 3993909.830017 83.269997 196 224 111
626409.450012 3993916.590027 92.660004 196 224 111
626409.109985 3993924.429993 98.540001 196 224 111
626411.059998 3993931.539978 103.160004 196 224 111
626416.959991 3993935.619995 103.790001 196 224 111
626425.320007 3993940.530029 104.019997 196 224 111
626426.410004 3993945.719971 109.019997 196 224 111
626434.369995 3993951.409973 105.080002 196 224 111
626439.149994 3993953.960022 100.269997 196 224 111
626449.309998 3993954.799988 95.570000 196 224 111
626455.329987 3993958.520020 96.339996 196 224 111
626465.350006 3993959.010010 92.550003 196 224 111
626473.690002 3993954.340027 86.199997 196 224 111
626481.609985 3993958.869995 86.820000 196 224 111
626492.309998 3993963.109985 87.699997 196 224 111
626490.130005 3993971.950012 95.089996 196 224 111
626488.440002 3993979.020020 100.730003 196 224 111
626497.980011 3993984.299988 104.160004 196 224 111
626492.600006 3993993.070007 110.139999 196 224 111
626496.769989 3993997.469971 114.019997 196 224 111
626500.059998 3994002.599976 118.089996 196 224 111
626497.420013 3994008.619995 121.839996 196 224 111
626490.980011 3994013.710022 124.919998 196 224 111
626485.079987 3994022.320007 132.710007 196 224 111
626489.170013 3994027.170044 135.919998 196 224 111
626494.269989 3994035.130005 137.690002 196 224 111
626492.359985 3994041.280029 141.440002 196 224 111
626491.820007 3994050.829956 143.850006 196 224 111
626483.929993 3994048.890015 149.690002 196 224 111
626480.029999 3994054.469971 152.130005 196 224 111
626478.230011 3994061.189941 154.309998 196 224 111
626484.670013 3994065.750000 148.339996 196 224 111
626490.250000 3994065.920044 142.899994 196 224 111
626498.350006 3994068.609985 134.160004 196 224 111
626507.459991 3994067.949951 140.509995 196 224 111
626509.440002 3994079.020020 145.020004 196 224 111
626504.910004 3994079.819946 139.380005 196 224 111
626503.420013 3994088.219971 147.279999 196 224 111
626496.299988 3994095.520020 154.199997 196 224 111
626494.640015 3994100.660034 159.149994 196 224 111
626498.170013 3994104.989990 164.270004 196 224 111
626500.899994 3994112.180054 166.529999 196 224 111
626504.399994 3994118.280029 167.809998 196 224 111
626512.729980 3994121.689941 169.809998 196 224 111
626517.030029 3994127.800049 176.139999 196 224 111
626524.469971 3994128.910034 178.100006 196 224 111
626524.190002 3994138.239990 178.759995 196 224 111
626521.799988 3994145.439941 178.179993 196 224 111
626519.609985 3994151.589966 180.830002 196 224 111
626518.010010 3994159.670044 179.070007 196 224 111
626515.690002 3994166.800049 181.809998 196 224 111
626509.630005 3994166.079956 185.889999 196 224 111
626503.540009 3994168.800049 191.240005 196 224 111
626503.269989 3994178.069946 193.889999 196 224 111
626507.350006 3994183.000000 190.960007 196 224 111
626513.750000 3994185.979980 186.860001 196 224 111
626519.429993 3994190.180054 186.600006 196 224 111
626522.570007 3994199.079956 189.679993 196 224 111
626525.369995 3994205.709961 190.589996 196 224 111
626525.159973 3994213.290039 191.070007 196 224 111
626531.210022 3994218.439941 195.339996 196 224 111
626534.289978 3994224.410034 197.949997 196 224 111
626532.500000 3994231.540039 198.250000 196 224 111
626532.659973 3994238.760010 196.929993 196 224 111
626540.150024 3994241.939941 202.729996 196 224 111
626547.770020 3994245.010010 209.850006 196 224 111
626548.919983 3994252.229980 210.350006 196 224 111
626548.590027 3994262.520020 207.289993 196 224 111
626555.679993 3994267.319946 211.639999 196 224 111
626555.479980 3994273.699951 214.660004 196 224 111
626554.609985 3994284.359985 223.110001 196 224 111
626547.010010 3994289.040039 228.619995 196 224 111
626540.320007 3994289.060059 231.309998 196 224 111
626532.849976 3994289.770020 234.860001 196 224 111
626530.169983 3994299.030029 243.979996 196 224 111
626525.320007 3994307.390015 248.020004 196 224 111
626524.619995 3994316.140015 252.750000 196 224 111
626517.369995 3994320.119995 256.480011 196 224 111
626517.090027 3994327.969971 256.059998 196 224 111
626506.549988 3994324.939941 262.380005 196 224 111
626504.329987 3994333.579956 264.790009 196 224 111
626500.589996 3994340.969971 264.989990 196 224 111
626493.309998 3994350.050049 264.799988 196 224 111
626491.459991 3994357.510010 260.809998 196 224 111
626482.869995 3994362.250000 267.170013 196 224 111
626486.329987 3994370.410034 260.839996 196 224 111
626489.829987 3994379.819946 258.869995 196 224 111
626490.390015 3994387.949951 257.010010 196 224 111
626488.230011 3994394.810059 260.970001 196 224 111
626481.380005 3994398.400024 265.529999 196 224 111
626479.910004 3994405.459961 267.380005 196 224 111
626474.630005 3994414.800049 270.760010 196 224 111
626470.480011 3994422.520020 272.720001 196 224 111
626471.799988 3994432.209961 282.579987 196 224 111
626464.980011 3994434.670044 284.119995 196 224 111
626462.089996 3994441.640015 289.040009 196 224 111
626456.279999 3994445.369995 286.399994 196 224 111
626449.309998 3994445.780029 289.420013 196 224 111
626440.559998 3994443.290039 292.609985 196 224 111
626436.540009 3994448.199951 296.910004 196 224 111
626426.959991 3994448.630005 300.589996 196 224 111
626423.109985 3994442.030029 297.309998 196 224 111
626414.720001 3994439.910034 298.040009 196 224 111
626405.850006 3994442.439941 301.179993 196 224 111
626396.470001 3994445.469971 305.350006 196 224 111
626392.089996 3994454.339966 311.019989 196 224 111
626383.859985 3994450.310059 313.619995 196 224 111
626375.820007 3994451.849976 319.859985 196 224 111
626367.380005 3994451.189941 324.079987 196 224 111
626357.339996 3994452.459961 330.089996 196 224 111
626351.500000 3994459.619995 338.029999 196 224 111
626343.339996 3994459.849976 343.739990 196 224 111
626335.100006 3994461.239990 348.910004 196 224 111
626325.989990 3994460.420044 353.049988 196 224 111
626319.720001 3994461.089966 356.950012 196 224 111
626310.369995 3994459.920044 362.890015 196 224 111
