ply
format ascii 1.0
element vertex 43
property float x
property float y
property float z
property uchar red
property uchar green
property uchar blue
end_header
388845.460022 4029029.580000 2891.129883 0 0 255
388812.539978 4028953.630001 2877.790039 0 0 255
388775.549988 4028892.870003 2871.100098 0 0 255
388782.289978 4028842.279999 2869.679932 0 0 255
388736.090027 4028821.259995 2867.419922 0 0 255
388681.989990 4028786.270004 2867.370117 0 0 255
388631.609985 4028771.779999 2866.830078 0 0 255
388588.020020 4028743.670013 2861.479980 0 0 255
388550.880005 4028688.859985 2856.030029 0 0 255
388504.859985 4028712.450012 2857.070068 0 0 255
388453.929993 4028704.209991 2855.389893 0 0 255
388404.070007 4028693.720001 2853.899902 0 0 255
388377.109985 4028650.730011 2850.889893 0 0 255
388327.559998 4028661.769989 2850.409912 0 0 255
388313.220001 4028612.970001 2853.500000 0 0 255
388264.869995 4028626.359985 2846.350098 0 0 255
388227.190002 4028586.980011 2849.149902 0 0 255
388172.470001 4028607.609985 2840.570068 0 0 255
388120.949997 4028609.920013 2837.560059 0 0 255
388084.300003 4028574.869995 2837.800049 0 0 255
388051.389999 4028533.130005 2834.520020 0 0 255
387987.440000 4028515.609985 2836.159912 0 0 255
387936.880001 4028519.299988 2841.449951 0 0 255
387893.669998 4028463.159973 2841.830078 0 0 255
387855.270004 4028430.190002 2845.550049 0 0 255
387808.110001 4028410.070007 2848.780029 0 0 255
387764.899994 4028383.099976 2853.250000 0 0 255
387726.140015 4028349.640015 2860.459961 0 0 255
387681.230011 4028325.700012 2867.320068 0 0 255
387636.779999 4028300.429993 2871.219971 0 0 255
387583.839996 4028294.789978 2875.010010 0 0 255
387537.799988 4028317.320007 2875.239990 0 0 255
387487.479980 4028323.520020 2877.820068 0 0 255
387437.440002 4028321.469971 2885.669922 0 0 255
387399.359985 4028371.390015 2898.280029 0 0 255
387390.400024 4028323.830017 2914.719971 0 0 255
387340.299988 4028315.500000 2908.739990 0 0 255
387289.940002 4028308.609985 2910.280029 0 0 255
387240.440002 4028298.719971 2905.330078 0 0 255
387216.030029 4028256.729980 2890.649902 0 0 255
387143.700012 4028251.799988 2878.360107 0 0 255
387105.950012 4028217.030029 2879.919922 0 0 255
387042.510010 4028223.250000 2855.469971 0 0 255
